# .PCD v.5 - Point Cloud Data file format
VERSION .5
FIELDS x y z
SIZE 4 4 4
TYPE F F F
COUNT 1 1 1
WIDTH 2582
HEIGHT 1
POINTS 2582
DATA ascii
0.174 0.194 0.074
0.173 0.192 0.084
0.17 0.189 0.092
0.331 0.368 0.31
0.316 0.351 0.319
0.271 0.301 0.317
0.245 0.272 0.307
0.224 0.249 0.302
0.218 0.242 0.314
0.21 0.233 0.325
0.202 0.225 0.336
0.194 0.215 0.346
0.184 0.205 0.353
0.175 0.194 0.36
0.166 0.184 0.368
0.141 0.157 0.339
0.123 0.137 0.32
0.115 0.128 0.325
0.107 0.119 0.328
0.097 0.108 0.327
0.088 0.098 0.328
0.08 0.089 0.331
0.072 0.081 0.335
0.064 0.072 0.338
0.056 0.062 0.339
0.047 0.052 0.334
0.039 0.043 0.334
0.031 0.034 0.333
0.023 0.025 0.332
0.015 0.017 0.329
0.007 0.008 0.328
0.0 0.0 0.328
-0.007 -0.008 0.327
-0.015 -0.016 0.326
-0.022 -0.025 0.325
-0.031 -0.034 0.331
-0.038 -0.043 0.329
-0.046 -0.051 0.327
-0.054 -0.06 0.326
-0.061 -0.068 0.322
-0.069 -0.077 0.319
-0.076 -0.085 0.315
-0.084 -0.094 0.313
-0.092 -0.102 0.309
-0.099 -0.11 0.305
-0.106 -0.118 0.3
-0.114 -0.127 0.297
-0.124 -0.137 0.296
-0.135 -0.15 0.3
-0.141 -0.157 0.292
-0.148 -0.165 0.284
-0.162 -0.18 0.288
-0.172 -0.191 0.286
-0.178 -0.198 0.276
-0.186 -0.206 0.268
-0.192 -0.213 0.258
-0.209 -0.232 0.262
-0.216 -0.24 0.252
-0.247 -0.274 0.268
-0.254 -0.282 0.256
-0.259 -0.288 0.242
-0.265 -0.295 0.229
-0.272 -0.302 0.216
-0.278 -0.309 0.202
-0.284 -0.315 0.189
-0.293 -0.325 0.177
-0.314 -0.349 0.171
-0.315 -0.349 0.152
-0.295 -0.328 0.126
-0.296 -0.329 0.11
-0.293 -0.326 0.093
-0.295 -0.328 0.077
-0.296 -0.329 0.062
-0.298 -0.331 0.046
-0.298 -0.331 0.031
-0.298 -0.331 0.015
-0.298 -0.331 0.0
-0.284 -0.338 0.0
-0.287 -0.342 0.015
-0.28 -0.334 0.03
-0.154 -0.183 0.025
-0.153 -0.182 0.033
-0.273 -0.325 0.075
-0.272 -0.325 0.09
-0.271 -0.323 0.105
-0.274 -0.327 0.122
-0.272 -0.324 0.137
-0.269 -0.321 0.152
-0.272 -0.324 0.171
-0.288 -0.343 0.199
-0.284 -0.338 0.215
-0.279 -0.333 0.231
-0.274 -0.327 0.246
-0.27 -0.322 0.262
-0.266 -0.317 0.279
-0.263 -0.314 0.298
-0.255 -0.304 0.31
-0.238 -0.284 0.311
-0.229 -0.273 0.321
-0.221 -0.263 0.332
-0.207 -0.247 0.334
-0.19 -0.226 0.328
-0.181 -0.216 0.337
-0.153 -0.183 0.306
-0.146 -0.174 0.313
-0.139 -0.165 0.32
-0.131 -0.156 0.327
-0.123 -0.147 0.333
-0.115 -0.138 0.339
-0.109 -0.129 0.347
-0.092 -0.109 0.321
-0.084 -0.101 0.326
-0.077 -0.091 0.329
-0.068 -0.081 0.326
-0.06 -0.071 0.325
-0.052 -0.063 0.329
-0.045 -0.053 0.331
-0.037 -0.045 0.333
-0.03 -0.036 0.335
-0.022 -0.027 0.339
-0.015 -0.018 0.342
-0.007 -0.009 0.339
0.0 0.0 0.336
0.007 0.008 0.335
0.014 0.017 0.326
0.021 0.026 0.325
0.029 0.034 0.323
0.036 0.043 0.322
0.043 0.052 0.32
0.051 0.06 0.318
0.058 0.069 0.315
0.065 0.078 0.313
0.072 0.086 0.31
0.081 0.096 0.312
0.088 0.105 0.307
0.096 0.115 0.309
0.103 0.123 0.303
0.11 0.132 0.298
0.119 0.142 0.298
0.126 0.15 0.291
0.136 0.162 0.292
0.144 0.172 0.288
0.151 0.18 0.281
0.158 0.189 0.274
0.167 0.2 0.27
0.174 0.207 0.261
0.183 0.218 0.256
0.204 0.244 0.267
0.211 0.251 0.256
0.221 0.263 0.249
0.232 0.277 0.244
0.238 0.284 0.232
0.25 0.298 0.225
0.256 0.305 0.212
0.262 0.312 0.199
0.336 0.401 0.211
0.341 0.406 0.193
0.345 0.411 0.174
0.349 0.416 0.155
0.351 0.419 0.136
0.184 0.219 0.0
0.168 0.215 0.0
0.158 0.203 0.009
0.158 0.202 0.017
0.161 0.206 0.027
0.259 0.332 0.059
0.204 0.261 0.058
0.16 0.205 0.055
0.159 0.204 0.064
0.158 0.202 0.073
0.162 0.207 0.085
0.16 0.205 0.094
0.158 0.203 0.104
0.296 0.379 0.349
0.247 0.317 0.314
0.24 0.307 0.327
0.232 0.297 0.339
0.221 0.283 0.348
0.198 0.254 0.334
0.175 0.224 0.316
0.16 0.205 0.311
0.153 0.196 0.319
0.146 0.187 0.327
0.139 0.178 0.335
0.132 0.169 0.343
0.124 0.159 0.349
0.115 0.148 0.354
0.108 0.138 0.36
0.097 0.125 0.356
0.087 0.111 0.351
0.078 0.1 0.35
0.068 0.087 0.343
0.059 0.076 0.337
0.051 0.066 0.336
0.044 0.056 0.336
0.036 0.046 0.337
0.029 0.037 0.337
0.021 0.027 0.336
0.014 0.018 0.335
0.007 0.009 0.328
0.0 0.0 0.329
-0.007 -0.009 0.327
-0.014 -0.017 0.326
-0.021 -0.027 0.326
-0.028 -0.035 0.323
-0.035 -0.044 0.323
-0.041 -0.053 0.32
-0.048 -0.062 0.318
-0.056 -0.071 0.318
-0.064 -0.082 0.321
-0.071 -0.091 0.318
-0.078 -0.1 0.316
-0.085 -0.109 0.311
-0.092 -0.118 0.307
-0.098 -0.126 0.301
-0.106 -0.136 0.3
-0.121 -0.154 0.314
-0.127 -0.163 0.307
-0.134 -0.172 0.301
-0.141 -0.18 0.293
-0.147 -0.188 0.284
-0.153 -0.196 0.277
-0.172 -0.22 0.289
-0.178 -0.228 0.279
-0.184 -0.236 0.27
-0.19 -0.243 0.259
-0.196 -0.252 0.249
-0.202 -0.259 0.239
-0.214 -0.274 0.234
-0.225 -0.288 0.228
-0.238 -0.305 0.223
-0.258 -0.33 0.222
-0.274 -0.351 0.217
-0.288 -0.369 0.208
-0.293 -0.375 0.192
-0.303 -0.388 0.179
-0.306 -0.392 0.161
-0.288 -0.368 0.134
-0.286 -0.367 0.116
-0.289 -0.369 0.099
-0.291 -0.372 0.083
-0.292 -0.374 0.066
-0.293 -0.376 0.05
-0.294 -0.376 0.033
-0.294 -0.377 0.016
-0.294 -0.377 0.0
-0.279 -0.385 0.0
-0.269 -0.37 0.015
-0.269 -0.371 0.032
-0.27 -0.371 0.048
-0.144 -0.199 0.034
-0.244 -0.337 0.073
-0.263 -0.362 0.095
-0.261 -0.359 0.11
-0.261 -0.359 0.127
-0.259 -0.357 0.143
-0.262 -0.361 0.162
-0.263 -0.363 0.181
-0.259 -0.357 0.196
-0.257 -0.354 0.213
-0.258 -0.355 0.233
-0.254 -0.349 0.249
-0.249 -0.343 0.265
-0.247 -0.34 0.283
-0.246 -0.339 0.304
-0.224 -0.309 0.298
-0.217 -0.299 0.31
-0.21 -0.289 0.321
-0.197 -0.271 0.324
-0.19 -0.261 0.335
-0.182 -0.251 0.345
-0.15 -0.207 0.305
-0.143 -0.197 0.312
-0.136 -0.188 0.32
-0.129 -0.178 0.327
-0.123 -0.169 0.334
-0.115 -0.159 0.341
-0.108 -0.149 0.346
-0.1 -0.138 0.35
-0.093 -0.128 0.356
-0.083 -0.115 0.353
-0.075 -0.103 0.351
-0.063 -0.087 0.333
-0.055 -0.076 0.33
-0.048 -0.067 0.333
-0.041 -0.057 0.332
-0.034 -0.047 0.333
-0.027 -0.038 0.335
-0.02 -0.028 0.337
-0.013 -0.019 0.338
-0.006 -0.009 0.337
0.0 0.0 0.337
0.006 0.009 0.336
0.013 0.018 0.329
0.02 0.027 0.326
0.026 0.036 0.324
0.033 0.046 0.324
0.04 0.055 0.32
0.046 0.064 0.318
0.053 0.073 0.318
0.06 0.083 0.316
0.067 0.092 0.313
0.076 0.105 0.322
0.083 0.114 0.317
0.089 0.123 0.311
0.095 0.131 0.306
0.102 0.14 0.301
0.108 0.149 0.295
0.117 0.161 0.295
0.125 0.172 0.292
0.132 0.182 0.289
0.139 0.191 0.281
0.146 0.201 0.277
0.153 0.211 0.27
0.166 0.228 0.273
0.177 0.244 0.271
0.192 0.264 0.274
0.198 0.272 0.263
0.215 0.296 0.266
0.236 0.325 0.271
0.243 0.334 0.258
0.248 0.342 0.244
0.261 0.36 0.236
0.263 0.362 0.218
0.263 0.362 0.199
0.299 0.412 0.206
0.292 0.402 0.181
0.296 0.407 0.163
0.298 0.411 0.145
0.301 0.415 0.127
0.302 0.416 0.109
0.298 0.41 0.089
0.279 0.384 0.066
0.142 0.211 0.0
0.141 0.21 0.008
0.14 0.207 0.017
0.139 0.206 0.026
0.138 0.205 0.034
0.137 0.204 0.043
0.136 0.202 0.051
0.135 0.201 0.06
0.262 0.389 0.271
0.255 0.378 0.356
0.246 0.365 0.369
0.236 0.35 0.38
0.203 0.301 0.351
0.192 0.285 0.356
0.179 0.266 0.356
0.166 0.246 0.354
0.153 0.228 0.352
0.146 0.217 0.361
0.129 0.192 0.344
0.115 0.17 0.329
0.105 0.156 0.326
0.098 0.146 0.331
0.09 0.134 0.333
0.083 0.123 0.335
0.075 0.112 0.335
0.069 0.102 0.339
0.061 0.091 0.338
0.053 0.079 0.334
0.046 0.069 0.336
0.04 0.059 0.337
0.033 0.049 0.339
0.026 0.038 0.332
0.019 0.028 0.332
0.012 0.019 0.331
0.006 0.009 0.331
0.0 0.0 0.331
-0.006 -0.009 0.333
-0.012 -0.019 0.331
-0.019 -0.028 0.328
-0.026 -0.038 0.333
-0.032 -0.048 0.331
-0.039 -0.058 0.329
-0.045 -0.067 0.326
-0.051 -0.077 0.323
-0.058 -0.086 0.32
-0.064 -0.095 0.317
-0.07 -0.104 0.313
-0.078 -0.115 0.313
-0.084 -0.124 0.308
-0.09 -0.134 0.305
-0.097 -0.144 0.301
-0.103 -0.153 0.295
-0.107 -0.159 0.286
-0.113 -0.168 0.279
-0.119 -0.177 0.274
-0.126 -0.187 0.268
-0.133 -0.197 0.264
-0.14 -0.207 0.259
-0.147 -0.218 0.254
-0.175 -0.259 0.282
-0.18 -0.268 0.271
-0.186 -0.276 0.26
-0.192 -0.285 0.25
-0.197 -0.293 0.238
-0.202 -0.3 0.226
-0.214 -0.318 0.221
-0.225 -0.333 0.214
-0.229 -0.34 0.2
-0.251 -0.373 0.2
-0.264 -0.392 0.191
-0.267 -0.397 0.174
-0.257 -0.381 0.149
-0.255 -0.378 0.13
-0.257 -0.381 0.114
-0.259 -0.384 0.098
-0.26 -0.386 0.082
-0.253 -0.375 0.063
-0.25 -0.371 0.047
-0.251 -0.372 0.031
-0.249 -0.37 0.015
-0.249 -0.369 0.0
-0.235 -0.376 0.0
-0.136 -0.217 0.008
-0.134 -0.214 0.017
-0.131 -0.21 0.026
-0.124 -0.199 0.033
-0.122 -0.196 0.04
-0.122 -0.195 0.049
-0.222 -0.355 0.104
-0.226 -0.361 0.122
-0.229 -0.366 0.14
-0.228 -0.365 0.156
-0.226 -0.361 0.172
-0.225 -0.361 0.189
-0.222 -0.355 0.204
-0.218 -0.349 0.219
-0.215 -0.344 0.234
-0.214 -0.343 0.252
-0.209 -0.336 0.267
-0.207 -0.332 0.284
-0.194 -0.31 0.286
-0.187 -0.3 0.296
-0.181 -0.29 0.308
-0.175 -0.28 0.319
-0.168 -0.269 0.329
-0.16 -0.256 0.335
-0.145 -0.233 0.327
-0.136 -0.218 0.33
-0.127 -0.203 0.33
-0.12 -0.193 0.338
-0.112 -0.179 0.338
-0.105 -0.168 0.344
-0.097 -0.155 0.344
-0.087 -0.139 0.337
-0.077 -0.124 0.328
-0.071 -0.114 0.332
-0.064 -0.102 0.333
-0.058 -0.093 0.337
-0.051 -0.082 0.337
-0.044 -0.072 0.34
-0.038 -0.06 0.337
-0.031 -0.051 0.341
-0.025 -0.04 0.341
-0.019 -0.03 0.342
-0.012 -0.02 0.343
-0.006 -0.009 0.336
0.0 0.0 0.337
0.006 0.009 0.33
0.012 0.019 0.33
0.018 0.029 0.329
0.024 0.039 0.327
0.03 0.048 0.325
0.036 0.058 0.322
0.042 0.067 0.319
0.048 0.076 0.316
0.054 0.087 0.315
0.06 0.096 0.312
0.066 0.106 0.31
0.073 0.117 0.311
0.079 0.126 0.306
0.086 0.138 0.306
0.091 0.147 0.3
0.097 0.156 0.295
0.105 0.168 0.294
0.111 0.178 0.29
0.117 0.188 0.284
0.125 0.201 0.282
0.132 0.212 0.277
0.14 0.224 0.274
0.147 0.235 0.268
0.152 0.243 0.258
0.16 0.257 0.254
0.169 0.27 0.249
0.174 0.278 0.238
0.188 0.3 0.239
0.206 0.33 0.243
0.226 0.362 0.247
0.237 0.38 0.238
0.24 0.384 0.221
0.244 0.391 0.205
0.256 0.41 0.195
0.261 0.418 0.179
0.264 0.423 0.162
0.142 0.228 0.0
0.122 0.212 0.0
0.122 0.212 0.008
0.122 0.211 0.017
0.121 0.211 0.025
0.121 0.21 0.034
0.12 0.208 0.042
0.123 0.214 0.052
0.18 0.313 0.09
0.179 0.311 0.103
0.212 0.368 0.332
0.206 0.356 0.345
0.14 0.243 0.252
0.173 0.299 0.334
0.174 0.301 0.361
0.163 0.282 0.362
0.15 0.26 0.358
0.143 0.248 0.368
0.128 0.221 0.352
0.115 0.199 0.341
0.105 0.183 0.339
0.092 0.159 0.319
0.086 0.15 0.325
0.08 0.14 0.331
0.075 0.129 0.337
0.068 0.119 0.341
0.062 0.108 0.343
0.056 0.097 0.348
0.049 0.086 0.347
0.042 0.073 0.341
0.036 0.063 0.344
0.03 0.052 0.343
0.024 0.041 0.341
0.017 0.031 0.341
0.011 0.02 0.341
0.005 0.01 0.338
0.0 0.0 0.335
-0.005 -0.01 0.331
-0.011 -0.019 0.33
-0.017 -0.029 0.328
-0.022 -0.039 0.326
-0.029 -0.05 0.333
-0.035 -0.06 0.33
-0.041 -0.071 0.329
-0.047 -0.082 0.33
-0.053 -0.092 0.327
-0.058 -0.102 0.324
-0.064 -0.111 0.319
-0.07 -0.121 0.316
-0.075 -0.131 0.31
-0.08 -0.14 0.304
-0.086 -0.149 0.298
-0.09 -0.157 0.29
-0.097 -0.169 0.289
-0.103 -0.179 0.285
-0.109 -0.19 0.281
-0.116 -0.201 0.277
-0.122 -0.212 0.271
-0.127 -0.22 0.263
-0.142 -0.246 0.275
-0.157 -0.272 0.283
-0.163 -0.282 0.273
-0.167 -0.29 0.261
-0.177 -0.306 0.257
-0.19 -0.329 0.256
-0.195 -0.337 0.243
-0.2 -0.346 0.23
-0.205 -0.355 0.218
-0.229 -0.397 0.224
-0.233 -0.405 0.208
-0.236 -0.41 0.191
-0.235 -0.408 0.171
-0.228 -0.395 0.148
-0.23 -0.398 0.132
-0.231 -0.401 0.115
-0.23 -0.398 0.097
-0.223 -0.387 0.078
-0.224 -0.389 0.063
-0.225 -0.39 0.047
-0.149 -0.258 0.02
-0.191 -0.332 0.013
-0.195 -0.339 0.0
-0.187 -0.352 0.0
-0.106 -0.201 0.007
-0.103 -0.193 0.015
-0.102 -0.193 0.022
-0.103 -0.194 0.03
-0.104 -0.195 0.039
-0.182 -0.343 0.082
-0.112 -0.21 0.059
-0.122 -0.23 0.074
-0.134 -0.252 0.093
-0.134 -0.253 0.104
-0.18 -0.338 0.155
-0.191 -0.359 0.181
-0.192 -0.361 0.199
-0.193 -0.364 0.219
-0.19 -0.357 0.233
-0.195 -0.366 0.259
-0.193 -0.364 0.278
-0.192 -0.361 0.297
-0.187 -0.352 0.312
-0.182 -0.343 0.326
-0.167 -0.314 0.321
-0.153 -0.288 0.316
-0.148 -0.278 0.326
-0.139 -0.261 0.329
-0.124 -0.233 0.314
-0.118 -0.222 0.323
-0.11 -0.207 0.322
-0.104 -0.196 0.329
-0.095 -0.178 0.323
-0.089 -0.168 0.329
-0.083 -0.157 0.335
-0.076 -0.143 0.332
-0.07 -0.132 0.338
-0.064 -0.121 0.339
-0.057 -0.107 0.334
-0.05 -0.094 0.33
-0.044 -0.083 0.33
-0.039 -0.073 0.333
-0.033 -0.063 0.337
-0.028 -0.052 0.339
-0.022 -0.042 0.342
-0.016 -0.031 0.344
-0.011 -0.021 0.34
-0.005 -0.01 0.339
0.0 0.0 0.34
0.005 0.01 0.328
0.01 0.02 0.328
0.016 0.03 0.327
0.021 0.04 0.325
0.026 0.05 0.324
0.032 0.06 0.321
0.037 0.07 0.322
0.043 0.081 0.321
0.048 0.091 0.319
0.053 0.101 0.315
0.059 0.112 0.316
0.065 0.122 0.311
0.071 0.134 0.311
0.076 0.143 0.306
0.082 0.155 0.304
0.087 0.165 0.299
0.092 0.174 0.293
0.099 0.187 0.292
0.106 0.201 0.291
0.116 0.219 0.295
0.121 0.228 0.287
0.129 0.242 0.284
0.14 0.264 0.288
0.145 0.273 0.279
0.154 0.29 0.275
0.159 0.299 0.264
0.163 0.307 0.253
0.18 0.338 0.258
0.197 0.37 0.262
0.201 0.378 0.247
0.207 0.389 0.234
0.225 0.424 0.234
0.229 0.431 0.217
0.232 0.436 0.199
0.226 0.426 0.175
0.228 0.429 0.158
0.227 0.427 0.138
0.224 0.422 0.119
0.225 0.424 0.102
0.223 0.42 0.084
0.222 0.417 0.066
0.222 0.418 0.049
0.21 0.395 0.031
0.141 0.266 0.01
0.136 0.256 0.0
0.121 0.249 0.0
0.118 0.243 0.009
0.105 0.216 0.016
0.105 0.215 0.025
0.103 0.212 0.033
0.103 0.211 0.041
0.102 0.21 0.049
0.173 0.356 0.098
0.189 0.388 0.124
0.187 0.384 0.139
0.185 0.38 0.154
0.186 0.381 0.171
0.185 0.38 0.188
0.184 0.378 0.205
0.183 0.376 0.222
0.18 0.369 0.237
0.182 0.373 0.259
0.184 0.378 0.284
0.202 0.415 0.336
0.178 0.366 0.318
0.165 0.339 0.316
0.161 0.33 0.331
0.156 0.32 0.343
0.149 0.305 0.352
0.132 0.272 0.336
0.123 0.252 0.334
0.117 0.241 0.343
0.109 0.223 0.343
0.103 0.212 0.35
0.097 0.2 0.357
0.088 0.18 0.348
0.08 0.165 0.346
0.072 0.148 0.338
0.066 0.135 0.339
0.06 0.124 0.343
0.054 0.11 0.339
0.047 0.096 0.331
0.041 0.085 0.332
0.036 0.075 0.334
0.031 0.064 0.336
0.026 0.053 0.337
0.02 0.042 0.335
0.015 0.031 0.333
0.01 0.02 0.333
0.005 0.01 0.331
0.0 0.0 0.332
-0.005 -0.01 0.329
-0.01 -0.02 0.329
-0.015 -0.031 0.328
-0.02 -0.041 0.326
-0.025 -0.051 0.325
-0.03 -0.062 0.326
-0.035 -0.072 0.325
-0.041 -0.085 0.332
-0.046 -0.096 0.329
-0.051 -0.106 0.325
-0.056 -0.116 0.32
-0.061 -0.126 0.316
-0.066 -0.136 0.31
-0.072 -0.147 0.309
-0.077 -0.158 0.305
-0.082 -0.168 0.3
-0.087 -0.179 0.295
-0.093 -0.191 0.292
-0.099 -0.203 0.289
-0.103 -0.212 0.281
-0.11 -0.226 0.279
-0.119 -0.244 0.281
-0.123 -0.254 0.273
-0.131 -0.269 0.269
-0.135 -0.278 0.259
-0.139 -0.286 0.249
-0.149 -0.306 0.247
-0.153 -0.313 0.235
-0.156 -0.321 0.223
-0.168 -0.346 0.222
-0.194 -0.399 0.236
-0.198 -0.406 0.22
-0.197 -0.403 0.2
-0.195 -0.4 0.179
-0.194 -0.397 0.161
-0.195 -0.401 0.145
-0.195 -0.401 0.128
-0.192 -0.394 0.109
-0.193 -0.396 0.093
-0.193 -0.396 0.077
-0.182 -0.373 0.058
-0.106 -0.219 0.0
-0.1 -0.225 0.0
-0.093 -0.21 0.008
-0.093 -0.209 0.016
-0.092 -0.207 0.023
-0.088 -0.198 0.03
-0.169 -0.381 0.151
-0.169 -0.38 0.168
-0.167 -0.375 0.183
-0.164 -0.37 0.197
-0.163 -0.367 0.213
-0.164 -0.369 0.233
-0.164 -0.368 0.252
-0.16 -0.36 0.266
-0.159 -0.357 0.284
-0.154 -0.346 0.296
-0.149 -0.335 0.308
-0.144 -0.325 0.32
-0.139 -0.314 0.332
-0.134 -0.302 0.342
-0.127 -0.286 0.348
-0.118 -0.267 0.348
-0.11 -0.249 0.349
-0.102 -0.23 0.347
-0.099 -0.222 0.361
-0.092 -0.207 0.363
-0.081 -0.184 0.349
-0.069 -0.156 0.323
-0.064 -0.144 0.324
-0.059 -0.134 0.329
-0.054 -0.122 0.332
-0.048 -0.108 0.327
-0.043 -0.097 0.327
-0.038 -0.086 0.329
-0.033 -0.075 0.332
-0.028 -0.064 0.334
-0.024 -0.054 0.336
-0.019 -0.043 0.335
-0.014 -0.032 0.337
-0.009 -0.021 0.338
-0.004 -0.01 0.338
0.0 0.0 0.339
0.004 0.01 0.338
0.009 0.021 0.337
0.014 0.032 0.336
0.019 0.042 0.334
0.023 0.053 0.329
0.028 0.064 0.33
0.032 0.073 0.324
0.037 0.084 0.322
0.042 0.094 0.319
0.046 0.105 0.316
0.051 0.116 0.314
0.057 0.128 0.315
0.062 0.139 0.312
0.066 0.149 0.307
0.071 0.16 0.304
0.075 0.17 0.298
0.08 0.179 0.291
0.086 0.194 0.292
0.09 0.204 0.286
0.099 0.223 0.291
0.107 0.241 0.293
0.111 0.251 0.284
0.116 0.26 0.275
0.134 0.301 0.297
0.138 0.311 0.286
0.142 0.321 0.274
0.147 0.331 0.263
0.161 0.362 0.267
0.169 0.38 0.26
0.171 0.385 0.243
0.174 0.392 0.228
0.178 0.399 0.213
0.18 0.406 0.198
0.187 0.42 0.185
0.209 0.469 0.187
0.201 0.451 0.16
0.203 0.456 0.143
0.097 0.218 0.0
0.086 0.215 0.0
0.086 0.214 0.008
0.086 0.214 0.016
0.086 0.213 0.024
0.086 0.213 0.032
0.085 0.211 0.04
0.085 0.21 0.048
0.086 0.214 0.057
0.145 0.36 0.282
0.137 0.34 0.286
0.139 0.345 0.313
0.135 0.334 0.324
0.13 0.322 0.335
0.125 0.31 0.346
0.113 0.281 0.336
0.102 0.253 0.325
0.097 0.242 0.334
0.093 0.23 0.342
0.088 0.218 0.349
0.082 0.203 0.351
0.075 0.186 0.349
0.067 0.167 0.339
0.06 0.15 0.333
0.056 0.139 0.338
0.051 0.128 0.343
0.046 0.114 0.339
0.041 0.101 0.337
0.036 0.09 0.34
0.031 0.078 0.339
0.026 0.066 0.338
0.021 0.054 0.331
0.017 0.043 0.335
0.013 0.032 0.335
0.008 0.021 0.336
0.004 0.01 0.336
0.0 0.0 0.332
-0.004 -0.01 0.331
-0.008 -0.021 0.329
-0.012 -0.031 0.328
-0.017 -0.042 0.328
-0.021 -0.053 0.326
-0.026 -0.064 0.328
-0.03 -0.075 0.327
-0.035 -0.086 0.325
-0.039 -0.098 0.326
-0.044 -0.109 0.323
-0.048 -0.119 0.318
-0.052 -0.129 0.314
-0.056 -0.14 0.31
-0.062 -0.154 0.313
-0.066 -0.165 0.308
-0.071 -0.175 0.303
-0.074 -0.185 0.295
-0.078 -0.193 0.287
-0.085 -0.212 0.293
-0.09 -0.224 0.288
-0.094 -0.233 0.28
-0.098 -0.244 0.272
-0.102 -0.252 0.263
-0.106 -0.264 0.256
-0.112 -0.279 0.252
-0.118 -0.293 0.247
-0.124 -0.309 0.242
-0.13 -0.323 0.235
-0.137 -0.34 0.229
-0.159 -0.395 0.246
-0.163 -0.404 0.231
-0.165 -0.41 0.216
-0.157 -0.39 0.187
-0.16 -0.396 0.172
-0.162 -0.401 0.157
-0.164 -0.406 0.142
-0.166 -0.41 0.127
-0.167 -0.413 0.111
-0.16 -0.398 0.091
-0.159 -0.394 0.075
-0.159 -0.395 0.059
-0.151 -0.375 0.042
-0.085 -0.235 0.008
-0.085 -0.235 0.017
-0.082 -0.227 0.025
-0.082 -0.227 0.033
-0.082 -0.226 0.042
-0.14 -0.386 0.133
-0.138 -0.381 0.147
-0.138 -0.381 0.164
-0.139 -0.384 0.182
-0.138 -0.379 0.196
-0.136 -0.375 0.212
-0.134 -0.369 0.226
-0.137 -0.376 0.25
-0.136 -0.376 0.27
-0.133 -0.367 0.284
-0.13 -0.359 0.298
-0.127 -0.349 0.312
-0.119 -0.327 0.313
-0.111 -0.306 0.315
-0.105 -0.289 0.318
-0.101 -0.277 0.328
-0.096 -0.266 0.337
-0.092 -0.253 0.345
-0.088 -0.241 0.354
-0.08 -0.22 0.347
-0.075 -0.208 0.354
-0.07 -0.192 0.355
-0.064 -0.176 0.354
-0.057 -0.157 0.343
-0.051 -0.142 0.34
-0.046 -0.128 0.338
-0.041 -0.115 0.336
-0.037 -0.103 0.339
-0.032 -0.09 0.334
-0.028 -0.078 0.333
-0.024 -0.066 0.333
-0.02 -0.055 0.337
-0.016 -0.044 0.339
-0.012 -0.033 0.341
-0.008 -0.022 0.338
-0.004 -0.011 0.337
0.0 0.0 0.33
0.003 0.01 0.329
0.007 0.021 0.329
0.011 0.032 0.328
0.015 0.043 0.326
0.019 0.053 0.324
0.023 0.064 0.322
0.027 0.075 0.32
0.031 0.087 0.322
0.035 0.098 0.323
0.039 0.109 0.319
0.043 0.119 0.315
0.047 0.131 0.315
0.052 0.142 0.311
0.055 0.153 0.307
0.059 0.163 0.301
0.063 0.173 0.295
0.066 0.183 0.289
0.07 0.194 0.284
0.076 0.209 0.285
0.082 0.226 0.287
0.086 0.238 0.282
0.09 0.248 0.273
0.094 0.26 0.268
0.098 0.27 0.258
0.104 0.285 0.255
0.112 0.308 0.256
0.118 0.325 0.251
0.125 0.344 0.247
0.135 0.372 0.248
0.146 0.401 0.246
0.15 0.412 0.233
0.175 0.483 0.25
0.081 0.222 0.0
0.072 0.224 0.0
0.069 0.214 0.007
0.069 0.213 0.015
0.069 0.212 0.023
0.07 0.217 0.032
0.069 0.213 0.039
0.071 0.22 0.049
0.071 0.22 0.057
0.07 0.218 0.065
0.07 0.216 0.073
0.069 0.213 0.081
0.116 0.359 0.317
0.104 0.322 0.327
0.101 0.311 0.339
0.096 0.298 0.348
0.086 0.265 0.332
0.081 0.252 0.339
0.077 0.237 0.343
0.073 0.225 0.351
0.069 0.213 0.359
0.064 0.197 0.359
0.056 0.175 0.346
0.051 0.159 0.344
0.047 0.146 0.345
0.042 0.13 0.338
0.038 0.118 0.342
0.034 0.106 0.343
0.029 0.092 0.337
0.026 0.08 0.34
0.022 0.068 0.338
0.018 0.056 0.337
0.014 0.045 0.339
0.01 0.033 0.334
0.007 0.021 0.33
0.003 0.01 0.33
0.0 0.0 0.33
-0.003 -0.011 0.333
-0.007 -0.021 0.33
-0.01 -0.033 0.333
-0.014 -0.044 0.331
-0.018 -0.055 0.33
-0.021 -0.066 0.329
-0.025 -0.077 0.326
-0.028 -0.088 0.325
-0.032 -0.099 0.322
-0.036 -0.11 0.32
-0.039 -0.122 0.318
-0.043 -0.132 0.313
-0.046 -0.143 0.309
-0.049 -0.153 0.303
-0.052 -0.162 0.295
-0.056 -0.172 0.29
-0.059 -0.181 0.283
-0.067 -0.209 0.302
-0.071 -0.218 0.294
-0.074 -0.228 0.286
-0.077 -0.238 0.278
-0.08 -0.247 0.269
-0.083 -0.256 0.26
-0.088 -0.272 0.258
-0.093 -0.287 0.253
-0.096 -0.296 0.243
-0.105 -0.323 0.247
-0.108 -0.332 0.235
-0.112 -0.347 0.228
-0.119 -0.366 0.222
-0.124 -0.382 0.213
-0.126 -0.39 0.2
-0.136 -0.419 0.196
-0.135 -0.417 0.177
-0.133 -0.411 0.157
-0.135 -0.416 0.142
-0.136 -0.42 0.126
-0.134 -0.412 0.108
-0.128 -0.394 0.088
-0.129 -0.398 0.073
-0.13 -0.401 0.059
-0.13 -0.401 0.044
-0.128 -0.394 0.029
-0.112 -0.347 0.0
-0.102 -0.356 0.0
-0.107 -0.374 0.013
-0.081 -0.283 0.02
-0.1 -0.35 0.038
-0.099 -0.348 0.05
-0.099 -0.346 0.063
-0.101 -0.355 0.078
-0.102 -0.357 0.092
-0.108 -0.377 0.112
-0.108 -0.376 0.127
-0.107 -0.375 0.142
-0.107 -0.374 0.157
-0.105 -0.368 0.17
-0.105 -0.367 0.186
-0.104 -0.364 0.201
-0.108 -0.377 0.226
-0.107 -0.374 0.243
-0.105 -0.366 0.257
-0.104 -0.364 0.275
-0.104 -0.364 0.296
-0.101 -0.354 0.309
-0.095 -0.334 0.313
-0.092 -0.322 0.324
-0.087 -0.303 0.327
-0.081 -0.283 0.326
-0.074 -0.259 0.321
-0.071 -0.247 0.33
-0.067 -0.236 0.338
-0.063 -0.22 0.34
-0.059 -0.208 0.347
-0.055 -0.193 0.349
-0.049 -0.172 0.337
-0.045 -0.158 0.337
-0.041 -0.143 0.335
-0.037 -0.129 0.334
-0.033 -0.117 0.336
-0.03 -0.106 0.339
-0.026 -0.091 0.33
-0.022 -0.079 0.333
-0.019 -0.068 0.335
-0.016 -0.057 0.336
-0.013 -0.045 0.338
-0.009 -0.034 0.339
-0.006 -0.022 0.339
-0.003 -0.011 0.339
0.0 0.0 0.338
0.003 0.011 0.337
0.006 0.022 0.334
0.009 0.033 0.332
0.012 0.044 0.328
0.015 0.055 0.326
0.019 0.066 0.325
0.022 0.077 0.325
0.025 0.089 0.323
0.028 0.1 0.32
0.031 0.111 0.317
0.035 0.123 0.318
0.038 0.134 0.315
0.041 0.146 0.311
0.045 0.158 0.31
0.049 0.172 0.31
0.052 0.184 0.306
0.055 0.195 0.3
0.059 0.207 0.297
0.062 0.218 0.29
0.065 0.228 0.282
0.069 0.243 0.281
0.072 0.253 0.273
0.078 0.273 0.275
0.083 0.29 0.272
0.086 0.3 0.262
0.093 0.326 0.265
0.096 0.335 0.253
0.108 0.379 0.266
0.111 0.389 0.253
0.114 0.398 0.239
0.116 0.407 0.225
0.119 0.415 0.21
0.113 0.395 0.183
0.112 0.392 0.164
0.112 0.392 0.148
0.111 0.388 0.131
0.111 0.388 0.115
0.11 0.384 0.099
0.068 0.237 0.008
0.133 0.466 0.0
0.053 0.216 0.0
0.053 0.216 0.007
0.053 0.214 0.015
0.053 0.214 0.023
0.053 0.213 0.03
0.052 0.212 0.038
0.054 0.219 0.048
0.054 0.219 0.056
0.055 0.223 0.066
0.074 0.299 0.1
0.074 0.299 0.112
0.085 0.343 0.143
0.085 0.341 0.156
0.084 0.34 0.17
0.086 0.347 0.19
0.085 0.341 0.203
0.084 0.34 0.219
0.084 0.338 0.235
0.09 0.363 0.272
0.088 0.354 0.285
0.085 0.344 0.298
0.083 0.334 0.31
0.08 0.324 0.323
0.078 0.313 0.334
0.075 0.302 0.346
0.072 0.291 0.357
0.07 0.28 0.37
0.067 0.27 0.383
0.063 0.254 0.388
0.058 0.233 0.385
0.044 0.18 0.322
0.041 0.166 0.323
0.038 0.155 0.328
0.035 0.144 0.333
0.033 0.132 0.338
0.03 0.12 0.342
0.027 0.108 0.345
0.024 0.096 0.347
0.02 0.083 0.345
0.017 0.07 0.343
0.014 0.058 0.341
0.011 0.045 0.334
0.008 0.034 0.334
0.005 0.022 0.335
0.002 0.011 0.333
0.0 0.0 0.334
-0.002 -0.011 0.331
-0.005 -0.022 0.33
-0.008 -0.033 0.329
-0.011 -0.045 0.33
-0.014 -0.056 0.328
-0.017 -0.07 0.343
-0.019 -0.08 0.33
-0.022 -0.09 0.326
-0.025 -0.103 0.327
-0.028 -0.114 0.323
-0.03 -0.124 0.317
-0.033 -0.134 0.312
-0.036 -0.145 0.307
-0.039 -0.159 0.309
-0.042 -0.171 0.306
-0.045 -0.182 0.3
-0.048 -0.192 0.294
-0.05 -0.202 0.287
-0.053 -0.213 0.282
-0.057 -0.229 0.281
-0.061 -0.244 0.28
-0.063 -0.254 0.271
-0.072 -0.29 0.288
-0.074 -0.3 0.279
-0.077 -0.309 0.268
-0.082 -0.331 0.266
-0.087 -0.352 0.263
-0.091 -0.367 0.255
-0.094 -0.377 0.243
-0.096 -0.386 0.229
-0.098 -0.394 0.216
-0.1 -0.403 0.202
-0.102 -0.411 0.188
-0.107 -0.432 0.18
-0.107 -0.433 0.162
-0.107 -0.43 0.144
-0.103 -0.414 0.122
-0.103 -0.417 0.107
-0.104 -0.42 0.092
-0.104 -0.418 0.076
-0.103 -0.414 0.059
-0.102 -0.412 0.044
-0.102 -0.412 0.029
-0.102 -0.413 0.014
-0.098 -0.393 0.0
-0.084 -0.396 0.0
-0.083 -0.393 0.014
-0.063 -0.297 0.021
-0.081 -0.382 0.041
-0.081 -0.383 0.055
-0.081 -0.382 0.068
-0.08 -0.379 0.082
-0.08 -0.379 0.096
-0.079 -0.376 0.11
-0.08 -0.379 0.126
-0.08 -0.377 0.14
-0.079 -0.372 0.153
-0.079 -0.375 0.17
-0.078 -0.369 0.184
-0.078 -0.371 0.201
-0.078 -0.37 0.218
-0.079 -0.374 0.238
-0.076 -0.361 0.249
-0.075 -0.354 0.263
-0.076 -0.36 0.288
-0.074 -0.352 0.302
-0.072 -0.343 0.315
-0.07 -0.333 0.329
-0.068 -0.322 0.34
-0.06 -0.282 0.321
-0.056 -0.265 0.323
-0.053 -0.253 0.331
-0.05 -0.238 0.335
-0.048 -0.226 0.344
-0.045 -0.214 0.351
-0.039 -0.184 0.326
-0.036 -0.17 0.328
-0.033 -0.156 0.328
-0.03 -0.145 0.333
-0.028 -0.133 0.337
-0.025 -0.117 0.33
-0.022 -0.105 0.331
-0.019 -0.093 0.331
-0.017 -0.081 0.333
-0.014 -0.069 0.335
-0.012 -0.057 0.335
-0.009 -0.046 0.337
-0.007 -0.034 0.339
-0.004 -0.023 0.34
-0.002 -0.011 0.343
0.0 0.0 0.346
0.002 0.011 0.345
0.004 0.023 0.341
0.007 0.034 0.332
0.009 0.045 0.328
0.011 0.056 0.326
0.014 0.067 0.324
0.016 0.078 0.322
0.019 0.089 0.32
0.021 0.101 0.318
0.023 0.112 0.314
0.026 0.124 0.314
0.028 0.135 0.31
0.03 0.145 0.305
0.033 0.158 0.304
0.035 0.169 0.299
0.038 0.18 0.295
0.042 0.2 0.303
0.045 0.215 0.303
0.048 0.227 0.297
0.05 0.239 0.291
0.053 0.249 0.283
0.055 0.258 0.274
0.057 0.271 0.268
0.061 0.287 0.264
0.066 0.313 0.268
0.07 0.331 0.264
0.074 0.351 0.26
0.076 0.36 0.248
0.081 0.382 0.244
0.084 0.398 0.235
0.084 0.399 0.217
0.084 0.398 0.198
0.085 0.403 0.183
0.085 0.401 0.165
0.081 0.382 0.142
0.08 0.38 0.126
0.08 0.379 0.111
0.081 0.384 0.097
0.05 0.235 0.051
0.051 0.243 0.043
0.052 0.245 0.035
0.052 0.246 0.026
0.054 0.256 0.018
0.056 0.264 0.009
0.056 0.265 0.0
0.038 0.217 0.0
0.038 0.217 0.007
0.038 0.217 0.015
0.038 0.216 0.023
0.038 0.215 0.03
0.037 0.214 0.038
0.037 0.212 0.045
0.037 0.21 0.053
0.036 0.209 0.06
0.038 0.217 0.071
0.038 0.218 0.08
0.038 0.216 0.088
0.052 0.299 0.135
0.06 0.341 0.169
0.062 0.352 0.19
0.062 0.353 0.207
0.061 0.346 0.219
0.059 0.339 0.232
0.063 0.36 0.266
0.062 0.353 0.28
0.06 0.344 0.293
0.059 0.335 0.306
0.057 0.325 0.319
0.055 0.316 0.333
0.053 0.305 0.344
0.052 0.294 0.356
0.047 0.266 0.346
0.044 0.254 0.355
0.04 0.229 0.344
0.037 0.21 0.341
0.031 0.18 0.316
0.029 0.165 0.315
0.027 0.153 0.319
0.025 0.142 0.324
0.023 0.131 0.331
0.02 0.118 0.33
0.018 0.105 0.33
0.016 0.094 0.333
0.014 0.081 0.331
0.012 0.07 0.334
0.01 0.058 0.335
0.008 0.046 0.337
0.006 0.034 0.337
0.004 0.023 0.336
0.002 0.011 0.332
0.0 0.0 0.333
-0.002 -0.011 0.332
-0.004 -0.022 0.33
-0.006 -0.036 0.352
-0.008 -0.048 0.352
-0.01 -0.059 0.342
-0.012 -0.071 0.339
-0.014 -0.081 0.333
-0.016 -0.093 0.329
-0.018 -0.105 0.33
-0.02 -0.116 0.326
-0.022 -0.127 0.32
-0.024 -0.138 0.316
-0.026 -0.148 0.309
-0.028 -0.159 0.303
-0.029 -0.168 0.296
-0.031 -0.179 0.29
-0.033 -0.191 0.287
-0.035 -0.203 0.283
-0.039 -0.223 0.29
-0.041 -0.236 0.285
-0.043 -0.249 0.28
-0.045 -0.258 0.271
-0.047 -0.268 0.263
-0.048 -0.277 0.253
-0.052 -0.299 0.255
-0.054 -0.308 0.245
-0.059 -0.339 0.25
-0.068 -0.391 0.267
-0.069 -0.394 0.25
-0.07 -0.402 0.235
-0.072 -0.411 0.222
-0.073 -0.417 0.206
-0.074 -0.424 0.191
-0.075 -0.43 0.176
-0.076 -0.435 0.161
-0.077 -0.44 0.145
-0.078 -0.443 0.128
-0.075 -0.426 0.107
-0.072 -0.409 0.088
-0.071 -0.407 0.072
-0.07 -0.397 0.056
-0.067 -0.38 0.04
-0.067 -0.381 0.027
-0.065 -0.373 0.013
-0.065 -0.372 0.0
-0.052 -0.373 0.0
-0.041 -0.296 0.01
-0.041 -0.296 0.02
-0.041 -0.295 0.031
-0.041 -0.294 0.041
-0.041 -0.294 0.052
-0.041 -0.294 0.063
-0.043 -0.308 0.077
-0.049 -0.35 0.101
-0.048 -0.347 0.114
-0.052 -0.374 0.137
-0.052 -0.37 0.151
-0.053 -0.379 0.17
-0.052 -0.373 0.184
-0.051 -0.368 0.197
-0.05 -0.361 0.21
-0.051 -0.363 0.229
-0.051 -0.365 0.248
-0.051 -0.362 0.266
-0.05 -0.358 0.283
-0.049 -0.349 0.296
-0.047 -0.339 0.309
-0.046 -0.334 0.325
-0.045 -0.323 0.338
-0.042 -0.301 0.338
-0.037 -0.263 0.317
-0.035 -0.25 0.323
-0.033 -0.238 0.33
-0.031 -0.225 0.338
-0.029 -0.213 0.344
-0.026 -0.19 0.333
-0.024 -0.175 0.332
-0.022 -0.161 0.334
-0.02 -0.148 0.336
-0.019 -0.136 0.341
-0.017 -0.123 0.343
-0.015 -0.11 0.344
-0.013 -0.095 0.335
-0.011 -0.082 0.334
-0.009 -0.07 0.336
-0.008 -0.058 0.337
-0.006 -0.047 0.339
-0.004 -0.035 0.341
-0.003 -0.023 0.342
-0.001 -0.011 0.342
0.0 0.0 0.343
0.001 0.011 0.34
0.003 0.023 0.339
0.004 0.034 0.331
0.006 0.045 0.327
0.008 0.057 0.326
0.009 0.068 0.324
0.011 0.079 0.323
0.012 0.091 0.321
0.014 0.102 0.317
0.016 0.114 0.317
0.017 0.125 0.313
0.019 0.136 0.31
0.02 0.148 0.306
0.022 0.159 0.302
0.023 0.169 0.297
0.025 0.182 0.295
0.027 0.194 0.291
0.028 0.205 0.285
0.03 0.218 0.282
0.033 0.234 0.282
0.034 0.248 0.278
0.04 0.29 0.303
0.042 0.3 0.293
0.043 0.31 0.282
0.045 0.32 0.271
0.048 0.344 0.271
0.051 0.365 0.268
0.053 0.382 0.26
0.054 0.391 0.246
0.056 0.401 0.234
0.057 0.41 0.22
0.058 0.418 0.206
0.057 0.412 0.185
0.057 0.409 0.167
0.056 0.404 0.148
0.057 0.408 0.134
0.056 0.404 0.117
0.056 0.4 0.1
0.055 0.395 0.084
0.054 0.384 0.068
0.051 0.369 0.052
0.037 0.266 0.028
0.034 0.242 0.017
0.031 0.22 0.007
0.03 0.218 0.0
0.023 0.219 0.0
0.023 0.219 0.007
0.022 0.218 0.015
0.022 0.217 0.022
0.022 0.216 0.03
0.022 0.214 0.038
0.022 0.217 0.046
0.023 0.222 0.055
0.024 0.228 0.065
0.023 0.227 0.074
0.025 0.242 0.088
0.037 0.354 0.143
0.037 0.356 0.159
0.036 0.35 0.171
0.036 0.344 0.184
0.035 0.338 0.196
0.035 0.338 0.212
0.035 0.337 0.228
0.037 0.361 0.263
0.037 0.352 0.277
0.036 0.351 0.296
0.036 0.35 0.317
0.035 0.339 0.329
0.034 0.327 0.34
0.032 0.311 0.347
0.03 0.288 0.345
0.027 0.26 0.335
0.025 0.241 0.334
0.023 0.224 0.334
0.022 0.212 0.342
0.02 0.195 0.34
0.019 0.183 0.346
0.017 0.167 0.345
0.015 0.146 0.33
0.014 0.134 0.335
0.012 0.121 0.334
0.011 0.109 0.337
0.009 0.094 0.329
0.008 0.082 0.331
0.007 0.07 0.335
0.006 0.058 0.334
0.004 0.046 0.335
0.003 0.035 0.337
0.002 0.023 0.336
0.001 0.011 0.334
0.0 0.0 0.332
-0.001 -0.011 0.331
-0.002 -0.022 0.33
-0.003 -0.034 0.329
-0.004 -0.046 0.33
-0.006 -0.061 0.353
-0.007 -0.074 0.353
-0.009 -0.088 0.355
-0.01 -0.1 0.35
-0.01 -0.104 0.323
-0.012 -0.116 0.321
-0.013 -0.128 0.318
-0.014 -0.139 0.314
-0.016 -0.154 0.318
-0.017 -0.165 0.312
-0.018 -0.176 0.306
-0.019 -0.186 0.3
-0.02 -0.196 0.293
-0.021 -0.206 0.286
-0.022 -0.217 0.279
-0.024 -0.229 0.275
-0.025 -0.244 0.273
-0.027 -0.257 0.268
-0.028 -0.266 0.259
-0.029 -0.279 0.252
-0.03 -0.294 0.248
-0.033 -0.314 0.246
-0.033 -0.323 0.236
-0.034 -0.332 0.225
-0.038 -0.363 0.228
-0.039 -0.378 0.219
-0.041 -0.393 0.21
-0.043 -0.411 0.201
-0.043 -0.409 0.183
-0.044 -0.418 0.17
-0.042 -0.399 0.146
-0.041 -0.398 0.13
-0.042 -0.402 0.116
-0.042 -0.405 0.101
-0.042 -0.407 0.087
-0.043 -0.41 0.072
-0.038 -0.37 0.052
-0.038 -0.37 0.039
-0.038 -0.369 0.025
-0.038 -0.365 0.012
-0.038 -0.365 0.0
-0.025 -0.363 0.0
-0.023 -0.342 0.012
-0.02 -0.293 0.02
-0.02 -0.291 0.03
-0.02 -0.29 0.04
-0.02 -0.287 0.05
-0.019 -0.284 0.06
-0.024 -0.351 0.087
-0.025 -0.368 0.105
-0.025 -0.367 0.119
-0.025 -0.362 0.132
-0.025 -0.357 0.144
-0.024 -0.355 0.158
-0.025 -0.362 0.177
-0.025 -0.357 0.19
-0.025 -0.37 0.214
-0.025 -0.368 0.23
-0.026 -0.372 0.251
-0.026 -0.375 0.273
-0.025 -0.366 0.286
-0.024 -0.356 0.299
-0.024 -0.346 0.312
-0.023 -0.34 0.329
-0.022 -0.325 0.338
-0.021 -0.305 0.339
-0.019 -0.285 0.34
-0.018 -0.269 0.345
-0.017 -0.256 0.354
-0.017 -0.243 0.361
-0.015 -0.214 0.344
-0.013 -0.189 0.329
-0.012 -0.175 0.33
-0.011 -0.163 0.335
-0.01 -0.149 0.336
-0.009 -0.135 0.335
-0.008 -0.12 0.332
-0.007 -0.108 0.335
-0.006 -0.095 0.335
-0.005 -0.082 0.33
-0.004 -0.07 0.333
-0.004 -0.059 0.338
-0.003 -0.047 0.34
-0.002 -0.035 0.342
-0.001 -0.024 0.344
0.0 -0.011 0.342
0.0 0.0 0.341
0.0 0.012 0.368
0.001 0.025 0.36
0.002 0.038 0.363
0.003 0.047 0.34
0.004 0.058 0.329
0.004 0.069 0.328
0.005 0.081 0.326
0.006 0.092 0.324
0.007 0.104 0.323
0.008 0.116 0.319
0.008 0.127 0.316
0.009 0.138 0.311
0.01 0.151 0.31
0.011 0.163 0.308
0.012 0.176 0.305
0.013 0.187 0.3
0.014 0.202 0.3
0.015 0.216 0.298
0.016 0.23 0.295
0.016 0.24 0.287
0.017 0.254 0.283
0.019 0.282 0.292
0.02 0.292 0.283
0.021 0.311 0.281
0.023 0.33 0.278
0.023 0.338 0.265
0.024 0.347 0.252
0.027 0.39 0.263
0.027 0.398 0.249
0.027 0.394 0.228
0.027 0.399 0.212
0.028 0.405 0.198
0.027 0.386 0.172
0.027 0.391 0.158
0.026 0.382 0.139
0.027 0.386 0.125
0.026 0.38 0.109
0.026 0.384 0.096
0.027 0.387 0.082
0.017 0.252 0.044
0.017 0.253 0.035
0.017 0.256 0.027
0.018 0.259 0.018
0.018 0.262 0.009
0.017 0.251 0.0
0.007 0.222 0.0
0.007 0.219 0.007
0.007 0.219 0.015
0.007 0.21 0.022
0.007 0.208 0.029
0.007 0.207 0.036
0.007 0.206 0.043
0.007 0.204 0.051
0.007 0.202 0.058
0.007 0.202 0.065
0.009 0.274 0.099
0.011 0.342 0.138
0.011 0.338 0.15
0.011 0.328 0.16
0.01 0.3 0.159
0.011 0.332 0.192
0.011 0.326 0.204
0.011 0.32 0.216
0.011 0.318 0.231
0.01 0.314 0.245
0.01 0.314 0.264
0.01 0.31 0.279
0.011 0.332 0.32
0.011 0.315 0.326
0.01 0.302 0.335
0.01 0.291 0.347
0.009 0.278 0.356
0.009 0.258 0.355
0.008 0.244 0.363
0.008 0.23 0.369
0.007 0.213 0.369
0.006 0.195 0.367
0.006 0.176 0.363
0.005 0.151 0.339
0.004 0.137 0.34
0.004 0.125 0.344
0.003 0.111 0.344
0.003 0.098 0.344
0.003 0.086 0.347
0.002 0.072 0.342
0.002 0.058 0.331
0.001 0.046 0.33
0.001 0.034 0.332
0.0 0.023 0.335
0.0 0.011 0.334
0.0 0.0 0.334
0.0 -0.011 0.332
0.0 -0.023 0.331
-0.001 -0.034 0.33
-0.001 -0.05 0.362
-0.002 -0.063 0.362
-0.002 -0.07 0.333
-0.002 -0.082 0.329
-0.003 -0.094 0.328
-0.003 -0.105 0.325
-0.004 -0.116 0.321
-0.004 -0.128 0.317
-0.004 -0.139 0.314
-0.005 -0.15 0.308
-0.005 -0.162 0.306
-0.006 -0.173 0.3
-0.006 -0.185 0.297
-0.007 -0.205 0.304
-0.007 -0.215 0.296
-0.008 -0.231 0.297
-0.008 -0.244 0.291
-0.008 -0.254 0.282
-0.009 -0.263 0.273
-0.009 -0.273 0.264
-0.009 -0.282 0.254
-0.01 -0.306 0.257
-0.011 -0.326 0.254
-0.012 -0.346 0.251
-0.012 -0.359 0.242
-0.012 -0.369 0.231
-0.013 -0.378 0.218
-0.014 -0.406 0.216
-0.014 -0.406 0.198
-0.014 -0.412 0.183
-0.014 -0.417 0.168
-0.014 -0.416 0.151
-0.014 -0.422 0.137
-0.014 -0.425 0.122
-0.014 -0.425 0.106
-0.014 -0.405 0.086
-0.014 -0.41 0.072
-0.014 -0.406 0.057
-0.012 -0.361 0.038
-0.012 -0.362 0.025
-0.012 -0.363 0.012
-0.012 -0.362 0.0
0.0 -0.363 0.0
0.0 -0.362 0.012
0.0 -0.362 0.025
0.0 -0.36 0.037
0.0 -0.298 0.041
0.0 -0.289 0.051
0.0 -0.345 0.073
0.0 -0.351 0.087
0.0 -0.347 0.099
0.0 -0.347 0.112
0.0 -0.344 0.125
0.0 -0.343 0.138
0.0 -0.338 0.15
0.0 -0.355 0.173
0.0 -0.369 0.196
0.0 -0.362 0.209
0.0 -0.388 0.242
0.0 -0.379 0.256
0.0 -0.371 0.269
0.0 -0.361 0.282
0.0 -0.351 0.295
0.0 -0.341 0.307
0.0 -0.331 0.32
0.0 -0.322 0.333
0.0 -0.315 0.35
0.0 -0.303 0.361
0.0 -0.282 0.361
0.0 -0.256 0.353
0.0 -0.244 0.363
0.0 -0.22 0.352
0.0 -0.193 0.335
0.0 -0.18 0.339
0.0 -0.166 0.34
0.0 -0.153 0.344
0.0 -0.14 0.348
0.0 -0.123 0.338
0.0 -0.107 0.33
0.0 -0.094 0.329
0.0 -0.082 0.331
0.0 -0.071 0.336
0.0 -0.059 0.338
0.0 -0.047 0.338
0.0 -0.035 0.34
0.0 -0.023 0.341
0.0 -0.011 0.34
0.0 0.0 0.34
0.0 0.013 0.375
0.0 0.026 0.375
0.0 0.034 0.332
0.0 0.046 0.329
0.0 0.057 0.326
0.0 0.069 0.327
0.0 0.081 0.325
0.0 0.092 0.322
0.0 0.104 0.322
0.0 0.115 0.318
0.0 0.129 0.321
0.0 0.141 0.317
0.0 0.152 0.311
0.0 0.162 0.306
0.0 0.176 0.306
0.0 0.189 0.303
0.0 0.203 0.301
0.0 0.213 0.294
0.0 0.224 0.287
0.0 0.235 0.28
0.0 0.246 0.274
0.0 0.259 0.269
0.0 0.274 0.264
0.0 0.294 0.264
0.0 0.312 0.262
0.0 0.33 0.257
0.0 0.347 0.252
0.0 0.368 0.248
0.0 0.377 0.235
0.0 0.387 0.223
0.0 0.407 0.216
0.0 0.426 0.208
0.0 0.389 0.173
0.0 0.393 0.158
0.0 0.389 0.141
0.0 0.387 0.125
0.0 0.38 0.109
0.0 0.366 0.091
0.0 0.365 0.077
0.0 0.363 0.064
0.0 0.359 0.05
0.0 0.278 0.029
0.0 0.26 0.018
0.0 0.218 0.007
0.0 0.218 0.0
-0.007 0.217 0.0
-0.007 0.217 0.007
-0.007 0.216 0.015
-0.007 0.209 0.022
-0.007 0.207 0.029
-0.008 0.245 0.043
-0.008 0.242 0.051
-0.008 0.239 0.059
-0.008 0.234 0.067
-0.008 0.241 0.078
-0.011 0.339 0.123
-0.011 0.328 0.132
-0.012 0.349 0.155
-0.012 0.344 0.168
-0.012 0.344 0.183
-0.011 0.338 0.195
-0.011 0.334 0.209
-0.011 0.328 0.221
-0.012 0.351 0.255
-0.012 0.352 0.275
-0.011 0.342 0.287
-0.011 0.333 0.3
-0.011 0.323 0.312
-0.011 0.319 0.33
-0.01 0.312 0.347
-0.008 0.256 0.306
-0.008 0.246 0.315
-0.008 0.235 0.324
-0.007 0.223 0.331
-0.007 0.211 0.338
-0.006 0.198 0.344
-0.006 0.186 0.35
-0.005 0.171 0.352
-0.005 0.154 0.347
-0.004 0.141 0.351
-0.004 0.122 0.337
-0.003 0.11 0.341
-0.003 0.097 0.339
-0.002 0.084 0.339
-0.002 0.071 0.336
-0.002 0.059 0.336
-0.001 0.047 0.335
-0.001 0.035 0.337
0.0 0.023 0.336
0.0 0.011 0.334
0.0 0.0 0.335
0.0 -0.011 0.331
0.0 -0.023 0.341
0.001 -0.038 0.368
0.001 -0.052 0.371
0.002 -0.065 0.373
0.002 -0.078 0.37
0.003 -0.09 0.364
0.003 -0.094 0.329
0.003 -0.104 0.322
0.004 -0.115 0.318
0.004 -0.127 0.315
0.004 -0.138 0.311
0.005 -0.149 0.306
0.005 -0.159 0.301
0.006 -0.173 0.3
0.006 -0.185 0.297
0.006 -0.196 0.291
0.007 -0.211 0.291
0.007 -0.222 0.284
0.008 -0.256 0.306
0.009 -0.266 0.296
0.009 -0.276 0.287
0.01 -0.301 0.291
0.01 -0.314 0.283
0.011 -0.326 0.274
0.011 -0.337 0.263
0.012 -0.346 0.252
0.012 -0.356 0.24
0.012 -0.369 0.231
0.013 -0.378 0.218
0.013 -0.395 0.21
0.014 -0.414 0.202
0.014 -0.424 0.189
0.014 -0.426 0.172
0.014 -0.423 0.154
0.014 -0.416 0.135
0.014 -0.419 0.12
0.014 -0.411 0.102
0.014 -0.409 0.087
0.012 -0.361 0.063
0.012 -0.363 0.051
0.012 -0.364 0.038
0.012 -0.365 0.025
0.012 -0.363 0.012
0.012 -0.35 0.0
0.023 -0.34 0.0
0.023 -0.334 0.011
0.021 -0.308 0.021
0.021 -0.314 0.033
0.021 -0.313 0.044
0.021 -0.312 0.055
0.022 -0.326 0.069
0.022 -0.328 0.082
0.022 -0.328 0.094
0.024 -0.345 0.112
0.024 -0.344 0.125
0.023 -0.341 0.138
0.023 -0.339 0.151
0.024 -0.351 0.171
0.025 -0.362 0.193
0.025 -0.368 0.213
0.025 -0.363 0.227
0.024 -0.356 0.241
0.025 -0.359 0.261
0.024 -0.35 0.274
0.024 -0.347 0.292
0.023 -0.337 0.304
0.022 -0.325 0.315
0.021 -0.313 0.325
0.021 -0.301 0.335
0.02 -0.289 0.345
0.019 -0.273 0.35
0.017 -0.255 0.351
0.016 -0.236 0.351
0.014 -0.204 0.327
0.013 -0.189 0.328
0.012 -0.177 0.334
0.011 -0.165 0.34
0.01 -0.144 0.324
0.009 -0.132 0.328
0.008 -0.118 0.327
0.007 -0.106 0.33
0.006 -0.095 0.332
0.005 -0.083 0.334
0.004 -0.071 0.335
0.004 -0.058 0.334
0.003 -0.047 0.335
0.002 -0.035 0.337
0.001 -0.023 0.337
0.0 -0.011 0.337
0.0 0.0 0.338
0.0 0.011 0.336
-0.001 0.026 0.377
-0.002 0.034 0.332
-0.003 0.046 0.328
-0.004 0.057 0.327
-0.004 0.069 0.325
-0.005 0.08 0.325
-0.006 0.092 0.322
-0.007 0.103 0.318
-0.008 0.114 0.316
-0.008 0.126 0.313
-0.009 0.138 0.311
-0.01 0.149 0.306
-0.011 0.161 0.303
-0.011 0.171 0.297
-0.013 0.186 0.298
-0.014 0.209 0.311
-0.015 0.223 0.309
-0.016 0.235 0.301
-0.017 0.245 0.293
-0.017 0.256 0.286
-0.018 0.267 0.277
-0.02 0.292 0.283
-0.021 0.302 0.273
-0.021 0.312 0.262
-0.023 0.338 0.265
-0.025 0.369 0.269
-0.026 0.382 0.258
-0.027 0.391 0.245
-0.028 0.404 0.234
-0.028 0.411 0.219
-0.029 0.417 0.204
-0.027 0.395 0.176
-0.028 0.4 0.162
-0.027 0.395 0.144
-0.027 0.393 0.128
-0.027 0.395 0.113
-0.027 0.395 0.098
-0.027 0.397 0.084
-0.027 0.387 0.068
-0.027 0.387 0.054
-0.022 0.315 0.033
-0.022 0.32 0.022
-0.018 0.263 0.009
-0.015 0.228 0.0
-0.022 0.217 0.0
-0.022 0.216 0.007
-0.022 0.212 0.014
-0.022 0.211 0.022
-0.021 0.207 0.029
-0.021 0.206 0.036
-0.021 0.205 0.043
-0.021 0.201 0.05
-0.021 0.201 0.058
-0.022 0.213 0.069
-0.024 0.229 0.084
-0.038 0.365 0.148
-0.037 0.352 0.172
-0.036 0.345 0.184
-0.036 0.343 0.199
-0.035 0.337 0.211
-0.035 0.341 0.231
-0.035 0.333 0.243
-0.034 0.326 0.256
-0.034 0.33 0.278
-0.034 0.331 0.299
-0.034 0.329 0.319
-0.034 0.327 0.34
-0.033 0.316 0.352
-0.031 0.299 0.358
-0.03 0.285 0.368
-0.026 0.249 0.345
-0.024 0.229 0.342
-0.021 0.207 0.333
-0.019 0.188 0.329
-0.018 0.177 0.335
-0.017 0.165 0.341
-0.016 0.153 0.346
-0.014 0.14 0.349
-0.013 0.128 0.354
-0.011 0.108 0.336
-0.01 0.096 0.339
-0.008 0.083 0.336
-0.007 0.071 0.338
-0.006 0.059 0.338
-0.004 0.046 0.335
-0.003 0.034 0.333
-0.002 0.023 0.334
-0.001 0.011 0.334
0.0 0.0 0.334
0.001 -0.011 0.332
0.002 -0.023 0.331
0.003 -0.034 0.33
0.004 -0.046 0.329
0.006 -0.059 0.336
0.007 -0.069 0.328
0.008 -0.08 0.326
0.009 -0.092 0.322
0.01 -0.104 0.323
0.012 -0.115 0.32
0.013 -0.127 0.316
0.014 -0.138 0.312
0.015 -0.149 0.309
0.017 -0.163 0.309
0.018 -0.177 0.308
0.019 -0.187 0.301
0.02 -0.198 0.295
0.022 -0.21 0.291
0.023 -0.22 0.283
0.024 -0.235 0.282
0.026 -0.249 0.278
0.028 -0.268 0.279
0.029 -0.278 0.27
0.03 -0.294 0.266
0.034 -0.323 0.273
0.035 -0.333 0.262
0.036 -0.343 0.25
0.037 -0.36 0.244
0.039 -0.38 0.238
0.042 -0.4 0.232
0.043 -0.416 0.222
0.044 -0.423 0.207
0.045 -0.431 0.193
0.044 -0.424 0.172
0.045 -0.428 0.156
0.044 -0.426 0.139
0.044 -0.423 0.122
0.044 -0.421 0.105
0.043 -0.417 0.089
0.039 -0.377 0.066
0.038 -0.363 0.051
0.038 -0.364 0.038
0.038 -0.364 0.025
0.037 -0.36 0.012
0.037 -0.359 0.0
0.05 -0.357 0.0
0.05 -0.356 0.012
0.049 -0.355 0.025
0.049 -0.353 0.037
0.049 -0.354 0.05
0.049 -0.352 0.062
0.049 -0.351 0.075
0.049 -0.351 0.088
0.048 -0.348 0.1
0.048 -0.344 0.113
0.051 -0.369 0.135
0.051 -0.366 0.149
0.05 -0.362 0.163
0.051 -0.367 0.181
0.05 -0.361 0.194
0.05 -0.355 0.207
0.048 -0.348 0.219
0.048 -0.343 0.234
0.049 -0.351 0.258
0.049 -0.348 0.275
0.047 -0.339 0.287
0.047 -0.336 0.305
0.044 -0.317 0.309
0.043 -0.307 0.321
0.041 -0.296 0.332
0.041 -0.297 0.357
0.034 -0.242 0.312
0.032 -0.23 0.32
0.03 -0.218 0.327
0.029 -0.207 0.334
0.027 -0.194 0.339
0.025 -0.181 0.345
0.023 -0.164 0.34
0.021 -0.15 0.341
0.019 -0.136 0.342
0.017 -0.121 0.336
0.015 -0.106 0.331
0.013 -0.094 0.332
0.011 -0.082 0.335
0.009 -0.071 0.337
0.008 -0.058 0.337
0.006 -0.047 0.339
0.004 -0.035 0.338
0.003 -0.023 0.339
0.001 -0.011 0.339
0.0 0.0 0.336
-0.001 0.011 0.332
-0.003 0.022 0.331
-0.004 0.034 0.33
-0.006 0.045 0.328
-0.008 0.057 0.326
-0.009 0.068 0.324
-0.011 0.079 0.322
-0.013 0.092 0.325
-0.014 0.104 0.324
-0.016 0.115 0.32
-0.017 0.126 0.317
-0.019 0.137 0.312
-0.02 0.149 0.309
-0.022 0.162 0.309
-0.024 0.173 0.303
-0.026 0.186 0.301
-0.027 0.198 0.296
-0.03 0.214 0.297
-0.031 0.224 0.29
-0.033 0.235 0.283
-0.034 0.245 0.274
-0.04 0.288 0.301
-0.042 0.299 0.291
-0.043 0.312 0.283
-0.045 0.322 0.273
-0.046 0.332 0.262
-0.049 0.353 0.259
-0.051 0.363 0.247
-0.052 0.373 0.235
-0.054 0.39 0.227
-0.057 0.41 0.22
-0.054 0.386 0.19
-0.055 0.393 0.176
-0.054 0.385 0.157
-0.054 0.39 0.143
-0.055 0.395 0.129
-0.052 0.375 0.108
-0.053 0.377 0.095
-0.035 0.249 0.053
-0.035 0.249 0.044
-0.055 0.316 0.0
-0.057 0.326 0.011
-0.056 0.323 0.022
-0.063 0.357 0.038
-0.063 0.357 0.051
-0.036 0.208 0.094
-0.037 0.215 0.106
-0.072 0.411 0.261
-0.067 0.384 0.283
-0.067 0.383 0.304
-0.062 0.354 0.302
-0.061 0.346 0.316
-0.059 0.335 0.328
-0.057 0.323 0.34
-0.054 0.307 0.346
-0.051 0.293 0.355
-0.049 0.28 0.364
-0.044 0.254 0.355
-0.041 0.235 0.353
-0.036 0.204 0.332
-0.033 0.191 0.336
-0.031 0.178 0.341
-0.029 0.167 0.347
-0.027 0.154 0.352
-0.024 0.14 0.354
-0.02 0.117 0.328
-0.018 0.106 0.331
-0.016 0.094 0.334
-0.014 0.082 0.337
-0.012 0.07 0.335
-0.01 0.058 0.334
-0.008 0.046 0.336
-0.006 0.034 0.337
-0.004 0.023 0.335
-0.002 0.011 0.332
0.0 0.0 0.332
0.002 -0.011 0.331
0.004 -0.023 0.335
0.006 -0.034 0.338
0.008 -0.05 0.363
0.011 -0.063 0.364
0.013 -0.076 0.366
0.015 -0.089 0.365
0.016 -0.092 0.325
0.018 -0.103 0.323
0.02 -0.115 0.323
0.022 -0.126 0.318
0.024 -0.137 0.314
0.026 -0.148 0.309
0.028 -0.159 0.303
0.029 -0.169 0.297
0.031 -0.18 0.292
0.036 -0.204 0.307
0.037 -0.214 0.3
0.039 -0.225 0.293
0.041 -0.235 0.284
0.043 -0.245 0.277
0.045 -0.257 0.27
0.047 -0.269 0.264
0.049 -0.278 0.254
0.051 -0.293 0.25
0.055 -0.314 0.249
0.058 -0.331 0.244
0.061 -0.347 0.238
0.068 -0.387 0.245
0.069 -0.394 0.231
0.07 -0.402 0.217
0.073 -0.416 0.206
0.074 -0.421 0.19
0.071 -0.408 0.167
0.07 -0.398 0.147
0.071 -0.403 0.133
0.071 -0.407 0.118
0.071 -0.407 0.103
0.072 -0.409 0.088
0.072 -0.411 0.073
0.07 -0.398 0.056
0.064 -0.363 0.038
0.064 -0.364 0.025
0.063 -0.362 0.012
0.063 -0.359 0.0
0.075 -0.357 0.0
0.075 -0.355 0.012
0.075 -0.353 0.025
0.077 -0.363 0.039
0.074 -0.352 0.05
0.074 -0.35 0.063
0.078 -0.368 0.08
0.076 -0.361 0.092
0.075 -0.356 0.104
0.074 -0.35 0.116
0.073 -0.345 0.128
0.076 -0.36 0.149
0.075 -0.356 0.162
0.079 -0.371 0.185
0.079 -0.375 0.204
0.078 -0.369 0.217
0.077 -0.365 0.233
0.076 -0.358 0.247
0.074 -0.35 0.26
0.073 -0.345 0.275
0.072 -0.342 0.293
0.07 -0.332 0.306
0.068 -0.322 0.318
0.066 -0.311 0.33
0.064 -0.304 0.345
0.063 -0.298 0.363
0.06 -0.284 0.372
0.054 -0.256 0.36
0.05 -0.235 0.357
0.045 -0.215 0.351
0.042 -0.198 0.351
0.038 -0.183 0.352
0.035 -0.165 0.347
0.03 -0.144 0.331
0.027 -0.131 0.332
0.025 -0.119 0.336
0.022 -0.107 0.336
0.02 -0.095 0.34
0.017 -0.082 0.336
0.014 -0.069 0.335
0.012 -0.058 0.337
0.009 -0.046 0.337
0.007 -0.034 0.333
0.004 -0.022 0.333
0.002 -0.011 0.333
0.0 0.0 0.333
-0.002 0.011 0.342
-0.004 0.022 0.335
-0.009 0.045 0.331
-0.012 0.056 0.328
-0.014 0.068 0.327
-0.016 0.079 0.325
-0.019 0.09 0.323
-0.021 0.102 0.321
-0.024 0.113 0.319
-0.026 0.124 0.315
-0.029 0.136 0.313
-0.031 0.147 0.308
-0.033 0.157 0.303
-0.035 0.169 0.299
-0.038 0.18 0.295
-0.04 0.19 0.289
-0.042 0.201 0.283
-0.045 0.215 0.282
-0.051 0.24 0.293
-0.053 0.253 0.287
-0.055 0.262 0.278
-0.059 0.277 0.274
-0.061 0.291 0.268
-0.068 0.319 0.274
-0.07 0.331 0.264
-0.074 0.352 0.261
-0.081 0.382 0.263
-0.083 0.392 0.25
-0.085 0.401 0.237
-0.086 0.405 0.22
-0.09 0.426 0.194
-0.092 0.433 0.179
-0.08 0.377 0.0
-0.091 0.365 0.0
-0.091 0.365 0.013
-0.09 0.363 0.026
-0.09 0.364 0.039
-0.09 0.363 0.052
-0.09 0.361 0.065
-0.089 0.358 0.078
-0.088 0.355 0.091
-0.087 0.352 0.104
-0.089 0.36 0.289
-0.088 0.353 0.305
-0.085 0.343 0.318
-0.082 0.332 0.33
-0.079 0.32 0.341
-0.076 0.308 0.352
-0.072 0.292 0.359
-0.063 0.255 0.336
-0.058 0.235 0.334
-0.055 0.223 0.34
-0.051 0.206 0.34
-0.048 0.194 0.346
-0.044 0.178 0.345
-0.041 0.165 0.348
-0.037 0.152 0.352
-0.034 0.138 0.354
-0.029 0.117 0.333
-0.026 0.104 0.331
-0.022 0.09 0.326
-0.019 0.079 0.329
-0.017 0.068 0.332
-0.014 0.057 0.334
-0.011 0.045 0.336
-0.008 0.034 0.339
-0.005 0.022 0.337
-0.002 0.011 0.337
0.0 0.0 0.331
0.002 -0.011 0.331
0.005 -0.022 0.331
0.008 -0.033 0.33
0.011 -0.044 0.328
0.013 -0.055 0.326
0.016 -0.066 0.324
0.021 -0.084 0.349
0.022 -0.089 0.32
0.025 -0.1 0.318
0.027 -0.112 0.317
0.031 -0.127 0.326
0.034 -0.139 0.322
0.037 -0.15 0.319
0.04 -0.162 0.314
0.043 -0.173 0.309
0.045 -0.184 0.303
0.048 -0.193 0.295
0.05 -0.201 0.285
0.052 -0.21 0.278
0.056 -0.225 0.277
0.06 -0.244 0.279
0.065 -0.261 0.279
0.068 -0.276 0.275
0.071 -0.286 0.266
0.073 -0.295 0.255
0.077 -0.31 0.249
0.079 -0.319 0.239
0.083 -0.334 0.232
0.085 -0.343 0.22
0.089 -0.357 0.212
0.09 -0.364 0.199
0.094 -0.38 0.191
0.097 -0.39 0.178
0.098 -0.395 0.164
0.1 -0.401 0.15
0.101 -0.405 0.135
0.102 -0.409 0.121
0.104 -0.418 0.107
0.101 -0.408 0.089
0.092 -0.371 0.067
0.09 -0.364 0.052
0.089 -0.36 0.039
0.09 -0.362 0.026
0.089 -0.359 0.012
0.089 -0.358 0.0
0.101 -0.352 0.0
0.1 -0.35 0.012
0.1 -0.349 0.025
0.099 -0.347 0.038
0.099 -0.346 0.05
0.098 -0.344 0.063
0.099 -0.347 0.076
0.099 -0.346 0.089
0.098 -0.343 0.102
0.097 -0.341 0.115
0.098 -0.345 0.13
0.097 -0.341 0.143
0.109 -0.38 0.176
0.107 -0.374 0.189
0.105 -0.367 0.203
0.103 -0.361 0.216
0.104 -0.362 0.235
0.101 -0.354 0.248
0.1 -0.351 0.265
0.1 -0.349 0.283
0.097 -0.34 0.297
0.094 -0.33 0.309
0.094 -0.33 0.332
0.087 -0.306 0.33
0.082 -0.288 0.333
0.077 -0.269 0.333
0.073 -0.257 0.342
0.068 -0.239 0.342
0.063 -0.223 0.344
0.059 -0.206 0.344
0.054 -0.189 0.341
0.051 -0.178 0.348
0.045 -0.158 0.338
0.041 -0.143 0.335
0.036 -0.127 0.329
0.033 -0.116 0.332
0.029 -0.104 0.333
0.026 -0.092 0.334
0.022 -0.079 0.333
0.019 -0.068 0.335
0.016 -0.057 0.336
0.013 -0.045 0.336
0.009 -0.033 0.335
0.006 -0.022 0.332
0.003 -0.011 0.343
0.0 0.0 0.349
-0.003 0.012 0.358
-0.006 0.024 0.361
-0.009 0.033 0.332
-0.012 0.044 0.328
-0.015 0.055 0.327
-0.019 0.066 0.325
-0.022 0.077 0.324
-0.025 0.088 0.321
-0.028 0.1 0.322
-0.032 0.113 0.323
-0.035 0.124 0.319
-0.038 0.134 0.315
-0.041 0.145 0.31
-0.044 0.156 0.306
-0.048 0.168 0.303
-0.051 0.18 0.301
-0.057 0.201 0.31
-0.062 0.216 0.31
-0.065 0.227 0.303
-0.069 0.24 0.298
-0.073 0.255 0.295
-0.077 0.271 0.292
-0.08 0.282 0.283
-0.083 0.292 0.273
-0.086 0.302 0.264
-0.09 0.316 0.257
-0.093 0.325 0.246
-0.1 0.351 0.246
-0.109 0.38 0.247
-0.114 0.397 0.239
-0.123 0.429 0.237
-0.125 0.438 0.202
-0.119 0.368 0.013
-0.118 0.366 0.026
-0.118 0.363 0.04
-0.123 0.38 0.056
-0.123 0.38 0.07
-0.124 0.382 0.085
-0.123 0.38 0.099
-0.122 0.377 0.113
-0.122 0.378 0.129
-0.125 0.385 0.147
-0.125 0.386 0.164
-0.124 0.382 0.178
-0.123 0.378 0.194
-0.12 0.372 0.207
-0.118 0.365 0.222
-0.117 0.361 0.237
-0.114 0.353 0.25
-0.113 0.35 0.267
-0.125 0.386 0.341
-0.104 0.322 0.305
-0.101 0.311 0.316
-0.1 0.307 0.335
